ply
format ascii 1.0
element vertex 1849
property float x
property float y
property float z
end_header
0.254147 -1.84506 5.04045
0.22436 -1.89065 5.05881
0.239819 -1.97013 5.1805
0.304765 -1.3347 4.97811
0.833678 -1.25449 4.87759
1.04864 -1.03566 4.76132
0.354715 -1.95555 5.2028
0.385045 -1.98007 5.24374
0.296252 -1.96196 5.17588
0.312413 -1.91195 5.23268
0.415441 -2.03799 5.26919
0.3571 -1.89709 5.05469
0.200754 -1.95821 5.12046
0.929181 -1.71265 5.11362
0.337171 -1.88857 5.02955
0.943438 -1.72325 5.08751
0.94949 -1.76064 5.16727
1.01221 -1.78539 5.17597
0.246816 -1.94371 5.11899
0.956923 -1.77302 5.15814
1.0219 -1.80801 5.19302
0.235135 -2.01405 5.13958
0.329299 -1.90437 5.07305
0.231559 -1.96755 5.1297
0.277266 -2.03431 5.12393
1.16414 -1.19179 4.82401
0.226725 -1.97408 5.17883
0.223823 -2.01395 5.14545
0.223085 -1.88366 5.03547
0.328831 -1.90538 5.07326
0.929784 -0.896177 5.89045
1.04184 -1.14284 5.52151
0.127232 -1.07001 4.03849
-0.591543 -1.04245 4.95
6.0827 -0.274904 5.23554
1.82994 -0.972855 5.49569
1.14252 -0.691747 5.83747
0.200674 -0.760196 4.18375
0.692898 -0.290265 5.67974
1.41689 -0.299669 6.34512
-0.564384 -1.20532 5.14856
0.323173 -1.85138 4.95799
0.370384 -1.85837 5.02367
0.299853 -1.70282 5.08305
0.282297 -1.91397 5.00313
0.154364 -1.91741 5.07457
0.371545 -1.87303 5.04716
0.00165713 -2.00092 5.08298
0.182351 -1.91201 5.06158
0.363787 -1.87361 5.07221
0.273323 -1.67343 5.06377
0.220191 -1.7753 4.98418
0.333946 -1.86296 4.9884
0.329116 -1.84118 5.02023
0.16836 -1.63855 4.71575
0.168555 -1.63865 4.71592
0.168375 -1.63882 4.716
0.168202 -1.6388 4.71597
0.168397 -1.63851 4.71572
0.168445 -1.63852 4.71578
0.168486 -1.63859 4.71588
0.331489 -1.86796 5.00339
0.343243 -1.85041 4.9764
0.346493 -1.82372 5.00321
0.309881 -1.91475 5.00121
0.212286 -1.8647 4.97207
0.254667 -2.01488 5.15402
0.190364 -1.85925 5.02984
0.872808 -1.37357 4.92784
0.0786225 -1.89987 5.05215
0.0681089 -1.89783 5.04824
0.259641 -1.89468 5.06513
0.076023 -1.84062 5.02625
0.365621 -1.87439 5.07141
0.291373 -1.98189 5.12467
0.242034 -1.96111 5.11534
0.217978 -1.89325 5.05958
0.160342 -1.8367 5.0206
0.182707 -1.86712 5.20043
0.247783 -1.96893 5.18365
0.161376 -1.94646 5.09471
0.13977 -1.91795 5.07203
0.00508684 -1.89051 5.09565
0.0331352 -1.91688 5.13608
0.1454 -1.92287 5.06188
0.0498198 -1.93754 5.18277
0.26754 -2.03966 5.1006
0.160681 -1.84132 4.99682
0.255034 -1.90056 5.06684
0.212752 -2.00019 5.15286
-0.00543466 -1.90254 5.06368
0.0136729 -1.88567 5.1109
0.0307352 -1.89678 5.10378
0.0873427 -1.90452 5.04351
0.0102067 -1.87914 5.14118
0.0265847 -1.92659 5.12705
0.0385743 -1.8932 5.0435
0.290636 -2.01148 5.11608
-0.000657398 -1.87162 5.07991
0.0400645 -1.93954 5.12489
0.264147 -1.91822 5.16489
1.52815 -1.94942 5.58251
0.300237 -1.90844 5.15325
0.207288 -1.95808 5.11526
0.327908 -1.95726 5.17947
0.215002 -1.95137 5.11531
0.32462 -1.92131 5.0767
0.347129 -1.77137 5.16966
0.534975 -1.44788 5.24981
0.620689 -0.828911 4.42068
-0.0241777 -1.02504 4.768
0.204992 -0.976062 4.95222
0.387103 -1.03673 4.98362
0.330413 -1.93416 5.22193
0.358098 -1.94719 5.11355
0.293723 -1.95747 5.18569
0.935878 -0.843133 4.6688
0.621413 -0.903185 4.78954
0.307908 -1.90527 5.15155
0.469258 -1.98099 5.20563
0.168401 -1.63852 4.71572
0.87129 -0.877077 5.40955
0.368059 -1.12392 5.07395
0.385682 -0.756563 4.21535
1.13941 -0.974378 4.92906
1.67666 -0.904253 4.66937
0.418704 -0.644077 4.37262
0.866907 -0.770563 4.6653
0.0300377 -0.758866 4.16432
0.322862 -1.88433 5.19699
0.331434 -1.89157 5.22103
0.332372 -1.94205 5.16691
0.385531 -1.95928 5.27464
0.409585 -2.02549 5.25184
0.375721 -1.93276 5.13886
0.470007 -1.9553 5.27114
0.316084 -1.88944 5.19466
-0.175361 -0.969556 4.76768
-0.0535381 -0.993176 4.76809
0.7792 -0.80509 4.64518
1.016 -0.89141 4.68856
0.160264 -1.06106 4.96092
0.312851 -1.91099 5.22958
0.348148 -1.91056 5.04742
0.250629 -2.02475 5.14606
0.930381 -1.81463 5.05035
0.26722 -1.90119 5.06948
0.300447 -1.87816 5.15233
0.443305 -1.90349 5.20237
0.442763 -1.79376 5.00799
0.440044 -1.71659 4.99534
0.340184 -1.88458 5.23505
0.321208 -0.70598 4.31638
0.288238 -0.639519 4.27131
0.788913 -1.10034 5.39397
0.918221 -0.807526 4.46048
0.0656298 -0.963455 4.79092
1.63445 -0.837472 4.64301
0.887655 -0.881968 4.66782
0.162793 -0.995405 4.95225
0.522348 -0.975309 4.70396
0.421419 -0.882172 4.55884
0.850288 -0.920966 5.39646
0.354286 -0.726861 4.37679
0.182489 -0.850033 4.75384
-0.0549286 -1.03534 4.8158
0.396705 -0.79751 4.45197
-0.387078 -1.02501 4.8643
0.286676 -0.696582 4.31551
-0.476553 -1.06061 4.9672
0.0358448 -1.08983 4.96253
-0.65068 -1.04845 4.91939
-0.0599484 -1.17478 5.05039
-0.154342 -0.931899 4.67558
-0.25995 -0.683189 4.3461
0.25646 -0.439523 5.49398
0.3462 -1.22494 5.33493
0.0435964 -0.878094 4.71801
0.112429 -0.874724 5.09223
-0.0980884 -0.917991 4.68308
-0.231799 -1.1046 4.90261
0.360724 -1.83923 5.09817
0.263514 -1.95556 5.23336
0.270209 -2.04349 5.10718
0.0876786 -0.696063 4.41306
0.0664624 -0.938679 4.70769
0.809543 -0.647634 4.45083
-0.481458 -1.19116 5.13631
0.323607 -1.8847 5.20345
0.344904 -1.87369 5.27868
0.346576 -1.88822 5.21582
0.680741 -1.85563 5.06149
0.310013 -1.94099 5.14157
0.294465 -1.93686 5.13211
0.427217 -1.99782 5.22806
0.402901 -1.9502 5.14707
0.504109 -1.95902 5.21972
0.679578 -1.93 5.29034
0.307395 -1.94217 5.13653
0.893932 -1.71576 5.58218
0.344281 -1.9072 5.21808
0.742267 -1.1914 5.46365
0.820801 -0.935588 4.82366
-0.454549 -0.751877 4.47428
0.173548 -0.894327 4.76988
6.65725 0.360659 3.78145
0.167584 -0.990721 4.89416
0.155119 -0.78764 4.3933
1.73227 -0.801937 4.57315
1.71246 -0.968228 4.37667
0.370366 -1.87373 4.99622
0.358646 -1.79124 5.15021
0.168381 -1.63878 4.71593
0.168402 -1.6386 4.71574
0.168435 -1.63849 4.71571
0.168414 -1.63849 4.71566
1.01308 -1.4248 4.93493
0.960974 -1.30156 4.73348
0.951178 -1.34815 4.74096
1.06989 -1.33026 4.79719
0.809474 -1.56062 5.04108
1.0654 -1.33469 4.79858
1.16275 -1.17169 4.7014
1.00271 -1.39275 4.84805
0.228005 -1.97596 5.13651
0.216208 -1.99373 5.14122
0.938893 -1.7024 5.00148
0.348377 -1.81038 5.02538
0.365308 -1.86473 5.005
0.371212 -1.77745 5.00631
0.384651 -1.77033 4.99481
0.0650307 -1.12051 5.00063
-0.0372961 -0.738954 4.18056
0.0268067 -1.12609 4.87855
0.340827 -1.53395 4.66062
-0.497968 -0.811168 4.58313
0.0798997 -1.13906 5.26328
-0.146843 -1.11257 4.94613
-0.461936 -1.04113 4.94098
-0.0645182 -0.786014 4.17108
0.145936 -0.945853 4.09233
0.606546 -0.887149 4.67711
0.711945 -0.923753 4.82445
-0.134764 -1.08314 4.89046
-0.318379 -0.951025 4.84466
-0.311009 -1.01309 4.83207
-0.279623 -1.02331 4.77461
0.0916289 -1.06616 5.11118
0.076861 -0.696619 4.39996
0.309566 -1.89883 5.221
-0.00444879 -1.70392 4.90203
0.0773067 -1.81366 4.88857
0.0846517 -1.77844 4.82807
0.103541 -1.72942 4.81647
0.105704 -1.75202 4.82146
0.0997881 -1.77884 4.82851
0.106455 -1.75267 4.81879
0.157238 -1.66198 4.75339
0.103277 -1.68452 4.76848
0.114819 -1.75502 4.8195
-0.0680995 -1.1132 4.09036
0.658013 -1.10417 5.3267
0.621868 -0.828858 4.42349
0.213172 -0.980822 4.91878
0.442979 -0.811408 4.54288
0.403163 -1.03915 4.98671
0.0616333 -1.16554 5.03979
0.863301 -0.914596 4.81905
0.103079 -0.965111 5.15349
0.32528 -1.13764 5.31644
-0.249503 -1.085 5.01934
0.371058 -1.12931 5.32081
-0.455623 -1.09663 5.14486
-0.202765 -0.953855 4.66918
-0.295752 -0.938704 4.82007
0.108124 -0.739386 4.71593
0.822862 -0.822056 4.64049
1.08386 -0.831861 4.51502
-0.224462 -0.817923 4.19674
0.261974 -0.737662 4.37281
0.0554402 -0.769774 4.44493
-0.221554 -1.07786 5.11208
-0.231045 -1.09182 4.90158
-0.515799 -1.03453 4.89449
-0.626651 -1.04566 4.92574
0.728624 -0.869036 4.65896
0.290868 -1.86329 5.05535
0.0877324 -1.78225 4.84279
0.119592 -1.75396 4.88209
0.0137544 -1.81686 4.83578
0.0567387 -1.72784 4.82688
0.108546 -2.00111 5.8154
0.0103936 -1.77777 4.84765
0.104329 -1.75907 4.80988
0.305822 -1.94641 5.13432
0.309902 -1.9063 5.14967
0.324182 -1.96497 5.21979
0.477733 -2.00389 5.22136
0.301568 -1.95246 5.12793
0.465764 -1.99449 5.21301
0.426959 -1.98526 5.1988
0.0106379 -1.04661 4.85164
0.168493 -1.63859 4.71573
0.168626 -1.63858 4.71611
0.168441 -1.6385 4.71577
0.168436 -1.6385 4.7157
0.168422 -1.63851 4.71568
0.168455 -1.6385 4.71575
0.168403 -1.63854 4.71579
-0.259099 -0.725362 4.06832
0.0355801 -1.11903 5.07392
0.440133 -0.711383 4.76034
-0.239787 -0.97397 4.24617
0.0811761 -0.76527 4.21076
-0.639497 -1.06649 4.9476
-0.568201 -0.779504 4.49905
-0.040611 -1.05169 4.81631
0.395259 -0.993962 4.1722
-0.165226 -1.09859 4.91125
0.350469 -0.692273 4.39185
0.0209857 -0.737459 4.41287
0.290995 -0.747716 4.35829
0.24181 -0.624699 4.30814
0.280323 -0.699128 4.15203
-0.533135 -1.0367 4.90878
-0.0505098 -0.796695 4.46377
0.286425 -2.02926 5.12078
0.253358 -2.03353 5.13354
0.689175 -1.85405 5.21907
0.249035 -2.00637 5.10753
0.936951 -1.75697 5.05507
0.243371 -2.0446 5.13077
0.203671 -1.89423 5.05733
0.111149 -1.85582 5.0236
0.329965 -1.92016 5.0435
0.34535 -1.89726 5.04121
0.212056 -1.85411 5.0338
0.461527 -1.71058 5.15172
0.0949108 -1.85157 5.01458
0.25242 -2.03918 5.11018
0.245779 -2.03141 5.12262
0.37367 -1.89237 5.01381
0.215954 -1.88745 5.05616
0.146337 -1.91353 5.06008
0.268603 -2.03553 5.09994
0.132703 -1.90176 5.15238
0.147663 -1.91461 5.06008
0.107645 -1.90019 5.04674
0.157901 -1.89333 5.06528
0.138958 -1.92403 5.1423
0.0691549 -1.85096 5.0117
0.358794 -1.891 5.01066
0.303584 -1.98117 5.09046
0.211701 -1.84632 5.03252
0.349509 -1.90082 5.03928
0.259554 -1.97583 5.07762
0.105818 -1.88557 5.04658
0.336351 -1.9377 5.08726
0.273233 -2.02634 5.09301
0.325103 -1.82904 4.9932
0.338002 -1.97107 5.13102
0.0865295 -1.79785 4.89801
0.169575 -1.76202 4.9756
0.344698 -1.86539 4.96729
0.217293 -1.80463 4.97883
0.330245 -1.9089 5.0885
0.293346 -1.97342 5.13413
0.225105 -1.93175 5.20048
0.213686 -1.87458 5.0401
0.33277 -1.97399 5.13179
0.268158 -1.98622 5.17692
0.146813 -1.9134 5.05965
0.233778 -1.9136 5.20652
0.244265 -2.00789 5.09089
0.0725629 -1.91951 5.06468
0.0549404 -1.85233 5.01988
0.250084 -2.03694 5.11134
0.248054 -2.03147 5.10685
0.195149 -1.8848 5.20113
0.366421 -1.88935 5.05006
0.161117 -1.90596 5.05947
0.347149 -1.88441 5.03273
0.152104 -1.88254 5.13216
0.2681 -1.86141 5.05625
0.162586 -1.90516 5.06615
0.311434 -1.96593 5.09056
0.253137 -2.0395 5.1117
0.274469 -1.89395 5.06192
0.24808 -2.03255 5.12782
0.155205 -1.89675 5.05547
0.0571724 -1.8499 5.01744
0.260417 -2.04079 5.13077
1.3569 -0.85086 4.59514
0.279521 -2.0258 5.09346
0.107934 -1.91992 5.06222
0.269917 -2.04302 5.11746
0.290874 -1.97691 5.133
0.0834694 -1.77981 5.00226
0.0826651 -1.89999 5.05148
0.27374 -2.03919 5.10292
0.0507591 -1.88709 5.03159
0.0414667 -1.89134 5.12372
0.315438 -1.94083 5.10243
0.0505388 -1.88143 5.13906
0.276993 -2.02891 5.09499
0.255299 -2.03385 5.13165
0.194116 -1.87252 5.05056
0.0922345 -1.91812 5.0567
0.166681 -1.85732 5.00826
0.289993 -2.01441 5.12238
0.246587 -2.03339 5.12269
0.224184 -2.00285 5.14003
0.037343 -1.88735 5.11429
0.152506 -1.88177 5.13274
0.291235 -1.92531 5.1634
0.0287691 -1.85634 5.00253
0.197358 -1.95448 5.13019
0.329516 -1.87495 5.07837
0.301504 -2.00014 5.10419
0.252618 -1.99576 5.08553
0.279468 -1.96697 5.12186
0.347413 -1.89079 5.05943
0.162699 -1.85597 5.03005
0.364715 -1.87422 5.07294
0.100749 -1.91973 5.04375
0.37367 -1.65208 5.09026
0.227679 -1.81755 5.01566
0.324781 -1.76745 4.98986
0.347639 -1.85208 5.00255
0.319701 -1.84347 4.97436
0.31635 -1.82104 5.00526
0.378866 -1.85739 5.16205
0.314852 -1.77898 4.98576
0.347895 -1.84287 4.99981
0.381523 -1.82744 5.07032
0.196524 -1.93816 5.22055
0.231225 -1.81697 4.99975
0.288057 -2.52427 5.60996
0.348514 -1.81007 5.02483
0.218857 -1.79014 4.9889
0.168426 -1.63852 4.71573
0.168388 -1.63874 4.71587
0.167917 -1.63959 4.71754
0.168285 -1.63878 4.71592
0.168442 -1.6385 4.71572
0.168463 -1.63856 4.7157
0.168445 -1.63852 4.71568
0.168424 -1.63852 4.71571
0.16845 -1.63856 4.71574
0.168426 -1.63852 4.71572
0.168374 -1.63871 4.71582
0.168505 -1.63855 4.71602
0.168485 -1.63853 4.71573
0.168481 -1.63853 4.71584
0.285435 -2.006 5.12514
0.0526288 -1.95664 5.14592
-0.0434584 -1.84275 5.06097
0.2772 -1.89264 5.07252
0.273328 -2.03867 5.10314
0.0426105 -1.90014 5.10277
0.289167 -1.96872 5.13275
-0.00591666 -1.84817 5.13136
0.294718 -1.90069 5.03558
0.282253 -2.0269 5.09607
0.254117 -2.03494 5.12978
0.273139 -2.02907 5.09586
0.289459 -1.9713 5.12991
0.264764 -2.03429 5.09775
0.243927 -1.89338 5.06425
0.226689 -1.89324 5.00974
0.283158 -2.02049 5.09493
0.287646 -1.99929 5.11962
0.0361567 -1.9333 5.13221
0.246295 -2.03144 5.12717
0.22167 -2.00976 5.14056
0.205691 -1.86934 5.04588
-0.0171705 -1.9113 5.05616
0.287714 -1.97898 5.14117
0.25379 -2.0345 5.12995
0.29403 -2.01526 5.10952
0.22735 -1.89584 5.00039
0.169921 -1.85312 5.02591
0.276443 -2.03507 5.09882
0.273094 -2.03542 5.10104
0.227288 -1.8471 5.0318
0.282383 -2.01019 5.12916
0.271955 -1.88682 5.02728
0.269617 -1.88772 5.00744
0.338244 -1.76281 4.96964
0.375484 -1.79566 5.04377
0.212483 -1.90251 5.06897
0.103112 -1.91139 5.07198
0.168452 -1.63851 4.71572
0.168428 -1.63852 4.71568
0.168435 -1.63855 4.71578
0.168468 -1.63852 4.71574
0.168446 -1.63853 4.71569
0.168892 -1.63906 4.71631
0.168447 -1.63853 4.7157
0.164133 -1.73218 4.95704
0.0824309 -1.7643 4.89732
0.109168 -1.68447 4.76989
0.109476 -1.6928 4.76616
0.115016 -1.77285 4.82594
0.0671186 -1.70992 4.82862
0.114608 -1.77315 4.82583
0.123941 -1.68124 4.75923
0.0851862 -1.68954 4.83089
1.03232 -1.67196 5.0913
0.239146 -1.97299 5.12449
0.186989 -1.95922 5.10036
1.06183 -1.79023 5.18153
0.216423 -1.95473 5.16664
1.17584 -1.22464 4.763
0.345721 -1.8908 5.05757
0.218734 -1.99728 5.14334
1.08447 -1.2462 4.74025
0.208403 -1.84269 5.00997
1.25598 -1.09863 4.69325
0.827675 -1.47423 4.98548
1.11507 -1.25908 4.83822
0.191461 -1.8723 5.03478
0.168416 -1.63859 4.71582
0.16848 -1.63855 4.71572
0.341387 -1.89809 5.07266
0.299972 -1.90119 5.07183
0.152387 -1.89938 5.05591
0.102823 -1.89582 5.03719
0.270215 -1.86497 5.04727
0.370808 -1.85337 5.05022
0.353013 -1.87664 5.15778
0.359658 -1.81062 5.10193
0.213732 -1.99661 5.14406
1.20663 -1.14081 4.70719
0.24346 -2.0158 5.11859
0.154355 -1.88093 5.05
-0.305799 -3.26958 6.27942
0.277501 -1.75701 4.95281
0.318612 -1.81199 5.01049
0.33467 -1.834 4.98895
0.327362 -1.82376 5.00238
0.0961558 -1.7996 4.87976
0.0876121 -1.75308 4.88115
0.161558 -1.79032 4.91367
0.152909 -1.70078 4.92068
0.166654 -1.73064 4.95471
0.0961994 -1.80595 4.89451
0.164837 -1.72937 4.96638
0.0900108 -1.70394 4.88514
0.176662 -2.03836 5.0598
0.15989 -1.81641 4.88016
0.153003 -1.74457 4.97496
0.15337 -1.82864 4.90878
0.0871519 -1.70605 4.88823
0.162731 -1.85391 5.03037
0.219717 -2.00595 5.14351
0.193434 -1.87603 4.96092
0.247089 -2.03316 5.12243
0.245977 -1.97752 5.17963
0.15466 -1.84085 5.04688
0.210029 -1.86325 5.03633
-0.0188382 -1.87672 5.09396
0.333712 -1.90738 5.07912
0.233214 -1.87535 5.06095
0.153236 -1.83184 5.01829
0.351815 -1.89402 5.08108
0.247933 -1.99984 5.16246
0.341579 -1.88209 5.06002
0.365597 -1.86081 5.06271
0.315949 -1.7677 4.98271
0.313187 -1.83425 4.99073
0.318046 -1.8301 4.99078
0.35202 -1.76353 4.97642
0.625474 -2.22929 5.48212
0.296 -1.83356 5.01166
0.16384 -1.84638 5.02844
0.170823 -1.86111 4.97149
0.243125 -2.01742 5.11893
1.00982 -1.24116 4.71377
0.847016 -1.67255 5.16048
0.285429 -2.03194 5.11336
0.202532 -1.96155 5.1544
0.255585 -2.03149 5.09909
0.28758 -2.01775 5.1237
0.26704 -2.04995 5.09996
0.173466 -1.84549 5.00857
0.816477 -1.66962 5.13719
0.216579 -2.00689 5.14674
0.214495 -1.98974 5.14312
0.192283 -1.86026 4.98368
0.175674 -1.87534 5.04147
0.170553 -1.83584 5.01852
0.937409 -1.78981 5.0637
0.997911 -1.79268 5.05874
0.987857 -1.75557 5.18116
0.928775 -1.76284 5.15502
1.12277 -1.78228 5.20452
1.03484 -1.75572 5.0675
0.883596 -1.8551 5.07132
0.222786 -1.88298 5.03528
1.00599 -1.88142 5.12411
1.23878 -1.77177 5.08417
0.330602 -1.88856 5.00041
1.08308 -1.87612 5.1256
0.291013 -1.9281 5.01065
0.335862 -1.84331 5.07425
0.247362 -1.97122 5.19158
1.05299 -1.86568 5.15022
0.210336 -1.89459 5.05984
0.93929 -1.78876 5.05613
0.935859 -1.82313 5.08829
0.256395 -1.99673 5.08522
0.604235 -1.95988 5.25362
0.774437 -1.90055 5.17778
1.02619 -1.84568 5.10009
0.248395 -1.97016 5.1922
0.226349 -1.97453 5.18679
0.210424 -1.89493 5.05988
0.340617 -1.89211 5.0084
0.88484 -1.80515 5.079
0.907104 -1.80684 5.06792
0.961481 -1.81139 5.08963
0.27065 -1.85102 5.05653
0.21524 -1.89962 5.06701
0.206402 -1.966 5.14752
0.889289 -1.81562 5.06875
1.00058 -1.81815 5.09322
1.09085 -1.79757 5.27457
0.245084 -1.92513 5.20014
0.220041 -1.99779 5.15752
1.01633 -1.80872 5.10811
0.257048 -1.99909 5.16448
0.258261 -1.89418 5.19622
0.2267 -2.03169 5.13332
0.954553 -1.82273 5.12536
0.974157 -1.81962 5.11856
0.0805499 -1.9222 5.06743
0.0096231 -1.88208 5.04128
0.249418 -1.97051 5.19022
0.21184 -1.8907 5.05527
0.353423 -1.7602 4.98135
0.266805 -1.96415 5.12193
0.3336 -1.81999 4.99634
0.156073 -1.72083 4.94607
0.17932 -1.80957 4.91764
0.143249 -1.70306 4.93453
0.0965996 -1.7075 4.89127
0.0920288 -1.80435 4.86883
0.0874645 -1.76436 4.89516
0.144577 -1.70064 4.92275
0.148135 -1.84776 4.91594
0.358891 -1.89119 5.01062
0.356157 -1.7875 5.14049
0.341436 -1.8583 5.05884
0.210273 -1.70178 4.94269
0.241355 -1.85242 5.02699
0.34366 -1.76354 4.9943
0.346315 -1.78473 4.98917
0.0878254 -1.82544 5.0079
0.77787 -1.84359 5.27193
1.09111 -1.80637 5.12686
1.1231 -1.83566 5.2293
0.927172 -1.75969 5.05456
0.185442 -1.91773 5.07974
1.18168 -1.7524 5.08856
0.293516 -1.90089 5.25358
0.93853 -1.82985 5.10167
1.29767 -1.7401 5.23924
0.931216 -1.74347 5.14869
1.24892 -1.75793 5.28679
0.870847 -1.78437 5.28153
0.232325 -1.88057 5.05792
0.71214 -1.75025 5.13063
0.379602 -1.87844 5.02297
1.43681 -1.29694 5.00128
0.242387 -1.86775 5.05689
0.0152435 -1.88663 5.03706
-0.0166245 -1.87479 5.10432
0.267154 -2.04028 5.10443
-0.0662988 -1.82436 5.05449
0.0416595 -1.86862 5.14615
0.291938 -2.022 5.09908
0.219092 -1.88326 5.0262
-0.0109181 -1.89495 5.07496
0.0557671 -1.92481 5.20657
0.0186044 -1.9122 5.14996
-0.0118266 -1.86502 5.14818
-0.021895 -1.84605 5.14747
-0.0145075 -1.89996 5.0595
-0.0116168 -1.86714 5.12385
0.285734 -2.02043 5.09768
0.261952 -1.90945 5.06821
0.213296 -1.85581 5.03376
0.139398 -1.89615 5.04493
0.0885555 -1.90462 5.05439
0.145102 -1.91626 5.06637
0.0281981 -1.89319 5.10368
0.352623 -1.90026 5.04091
0.627374 -1.87595 5.08116
1.0414 -1.78694 5.12772
0.853266 -1.87457 5.34621
0.292509 -2.01057 5.10207
0.999175 -1.77394 5.22694
0.861317 -1.73597 5.00898
0.243126 -1.86656 5.04742
1.11147 -1.67789 5.03583
0.934412 -1.78398 5.05488
0.849376 -1.85755 5.07212
0.168495 -1.63858 4.71575
0.168388 -1.63853 4.71571
0.143823 -1.84265 4.91391
0.343013 -1.86038 4.963
0.301241 -1.92637 5.21579
0.930698 -1.65575 5.05857
0.929565 -1.82757 5.35715
0.331203 -1.89433 4.99153
0.21145 -1.87286 4.97315
0.200154 -1.96139 5.1382
0.153266 -1.83369 5.1354
0.149808 -1.87923 5.1384
0.194504 -1.84954 5.02589
0.320327 -1.88961 4.99437
0.211667 -1.96518 5.16524
0.198513 -1.96281 5.13024
0.348375 -1.89713 4.99452
0.198069 -1.95674 5.13584
0.256206 -1.9973 5.08549
0.245238 -1.99496 5.11734
0.260086 -1.89311 5.19708
0.207741 -1.94943 5.16935
0.0554537 -1.85155 5.01919
0.296741 -1.85609 5.04958
0.352467 -1.89698 5.07464
0.260113 -1.97553 5.1756
0.241704 -2.02476 5.11981
0.26565 -2.04097 5.12988
0.199517 -1.85025 5.02778
0.216343 -1.95571 5.1154
0.212362 -1.99949 5.146
0.154789 -1.86103 5.02982
0.324075 -1.88539 5.00303
0.221671 -1.97441 5.17996
0.192871 -1.84559 5.00825
0.200594 -1.86935 5.0398
0.144718 -1.9165 5.06841
0.241516 -2.02642 5.1198
0.196326 -1.87087 5.04145
0.223072 -1.8878 5.05614
0.265191 -2.03499 5.09893
0.175395 -1.85019 5.02561
0.227524 -2.17785 5.11604
0.295568 -1.91516 5.00512
0.241818 -2.01855 5.11355
0.231778 -1.90954 4.99052
0.329779 -1.91502 5.17786
0.288566 -2.0161 5.12061
0.0872796 -1.83801 5.01035
0.164895 -1.85524 5.02618
0.0959043 -1.91096 5.05974
0.0781554 -1.9238 5.06833
0.135837 -1.87806 5.18537
0.347623 -1.90362 5.04509
0.135043 -1.91764 5.127
0.138168 -1.92712 5.08236
0.0694918 -1.91343 5.05658
0.168426 -1.63849 4.71568
0.1684 -1.63865 4.71582
0.537902 -2.48725 6.53414
0.168416 -1.63853 4.71577
0.168473 -1.63858 4.71572
0.168434 -1.63853 4.71572
0.168429 -1.63848 4.71569
0.168433 -1.63851 4.71566
0.130849 -1.87991 5.03099
0.139138 -1.89778 5.04609
0.118081 -1.87435 5.0341
0.0351768 -1.77762 5.00323
0.0292248 -1.88218 5.03023
0.239706 -2.01672 5.11636
0.249211 -2.02644 5.13293
-0.0136699 -1.87665 5.10447
0.248216 -2.02779 5.10488
0.268597 -2.03638 5.09966
0.216913 -2.00288 5.14251
0.287659 -2.02562 5.10589
0.0041272 -1.89276 5.03668
0.267692 -2.03369 5.09877
0.117411 -1.85109 5.00846
0.129451 -1.94017 5.08796
0.00436456 -1.89529 5.04382
0.274465 -2.03434 5.09707
0.256546 -2.03726 5.10561
0.21595 -1.97497 5.13786
0.28601 -1.8919 5.07245
0.00572075 -1.87379 5.01824
0.0434485 -1.89412 5.16932
0.183005 -1.91758 5.07229
-0.0163673 -1.84803 4.95405
0.168454 -1.63856 4.71572
0.168303 -1.63861 4.71594
0.169038 -1.63919 4.71673
0.169571 -1.63971 4.71767
0.168792 -1.63906 4.7164
0.168602 -1.63873 4.71604
0.168405 -1.63855 4.71588
0.168436 -1.63853 4.71571
0.168428 -1.63851 4.71569
0.168598 -1.63862 4.71624
0.168118 -1.63859 4.71648
0.168896 -1.63894 4.7165
0.0668806 -1.83263 4.8648
0.340517 -1.85288 5.03275
0.207828 -1.81814 4.97677
0.000985678 -2.50688 5.55134
0.313919 -1.80408 5.01203
-0.0125344 -1.86446 5.14866
0.218333 -1.86803 5.05171
0.00422232 -1.89585 5.04421
0.203087 -1.97306 5.1222
0.245114 -2.02217 5.12973
0.286234 -1.98537 5.13682
0.149468 -1.93999 5.09327
0.211575 -1.85653 5.01616
0.207117 -1.87829 5.04579
0.288359 -2.01927 5.12775
0.256557 -2.03503 5.10617
-0.00517362 -1.89551 4.98131
0.269417 -2.0371 5.12733
0.0235071 -1.88207 4.99287
0.287752 -2.02579 5.10557
0.191995 -1.84488 5.00822
0.248006 -2.03282 5.11416
0.0768443 -1.92288 5.06716
0.12798 -1.93589 5.08981
-0.00923973 -1.86083 4.96368
0.04213 -1.88528 5.03731
0.278503 -2.03381 5.12381
-0.0158577 -1.87922 5.16062
0.127621 -1.81904 5.01137
0.285664 -1.98752 5.11561
0.277858 -1.96801 5.12414
0.322231 -1.90083 5.1146
0.182372 -1.92745 5.23179
0.291979 -1.89109 5.05279
0.168421 -1.6385 4.71572
0.168389 -1.63851 4.71569
0.227662 -1.89641 5.0084
0.162689 -1.94376 5.09597
0.105114 -1.84199 5.02139
0.286639 -2.01025 5.12441
0.212155 -1.89256 5.06019
-0.0210498 -1.87563 5.1619
0.0618704 -1.85762 5.02489
0.0456541 -1.90703 5.1069
0.279927 -2.03537 5.09948
0.26816 -1.91082 5.0785
0.354154 -1.87109 5.14631
0.0811952 -1.65044 4.92448
0.32908 -1.97473 5.13577
0.0678029 -1.65853 4.82633
0.136304 -1.7032 4.81098
0.131214 -1.69829 4.83235
0.0962292 -1.68219 4.76792
0.0781051 -1.72694 4.79697
0.0921773 -1.71257 4.7977
0.102798 -1.70748 4.77674
0.349612 -1.8364 4.99893
0.348289 -1.90052 4.99112
0.362263 -1.81417 5.11708
0.143144 -1.92008 5.07076
0.370983 -1.8514 5.05303
0.356004 -1.89543 5.0886
0.360122 -1.89532 5.004
0.34793 -1.8964 4.99517
0.368684 -1.86333 5.06514
0.358207 -1.89271 5.00697
0.255881 -1.96019 5.18253
0.234002 -1.93942 5.19929
0.261914 -1.96766 5.1772
0.232335 -1.93651 5.19666
0.368536 -1.8287 5.06609
0.258027 -1.90723 5.05502
0.204424 -1.87366 5.04089
0.357102 -1.88939 5.00991
0.352749 -1.90357 5.04196
0.36872 -1.86451 5.06517
0.273677 -2.04006 5.09613
0.320457 -1.94245 5.10337
0.247747 -1.88369 5.04288
0.0393421 -1.92387 5.0702
0.244601 -2.02045 5.14064
0.285269 -1.97322 5.13907
0.0476844 -1.96382 5.15784
0.179066 -1.94029 5.22652
0.0635379 -1.96367 5.14119
0.182779 -1.92772 5.23148
0.283521 -2.0077 5.09936
0.272331 -2.02813 5.09368
0.175856 -1.9336 5.22621
0.257204 -1.89038 5.04701
0.282596 -1.9761 5.1451
0.26536 -2.03785 5.10065
0.220056 -1.88767 5.05542
0.281592 -2.01749 5.09409
-0.00420893 -1.88588 5.15911
0.27429 -2.02967 5.09462
0.273047 -2.04061 5.10252
0.168445 -1.63854 4.71577
0.168269 -1.63875 4.71591
0.168455 -1.63852 4.71573
0.168477 -1.63855 4.71581
0.16836 -1.63854 4.71576
0.168493 -1.63858 4.71579
0.168405 -1.63858 4.71574
0.16841 -1.63855 4.71577
0.168409 -1.6385 4.7157
0.211187 -1.84444 5.02167
0.34881 -1.83763 5.00673
0.266156 -1.91223 5.0772
0.147014 -1.70112 4.91889
0.0399189 -1.76788 4.8498
0.0229706 -1.76669 4.8594
0.155992 -1.83465 4.9122
0.0625362 -1.73464 4.82699
0.153141 -1.7223 4.94558
0.155961 -1.71679 4.96564
0.062102 -1.8096 4.88559
0.158442 -1.7229 4.94383
0.0977733 -1.76236 4.89164
0.154288 -1.70296 4.92979
0.16747 -1.73341 4.95474
0.091065 -1.706 4.88613
0.163603 -1.83186 4.92134
0.283285 -1.97344 5.12347
0.285066 -1.99776 5.11779
0.248603 -2.02543 5.13917
0.224291 -1.90324 5.0705
0.27997 -2.00752 5.0983
0.185763 -1.85475 5.03167
0.203441 -1.86648 5.047
0.254082 -2.02788 5.14612
0.27301 -1.91225 5.07958
0.230104 -1.90206 5.07126
0.364541 -1.83454 5.06246
0.375357 -1.79542 5.04414
0.367173 -1.84667 5.04635
0.237674 -1.96574 5.10745
0.364234 -1.8383 5.08734
0.36397 -1.83388 5.09583
0.279724 -1.89782 5.00813
0.251887 -1.77159 4.97758
0.356063 -1.83696 5.03723
0.254699 -1.68402 5.09679
0.372223 -1.90681 4.9941
0.21456 -1.79446 4.98579
0.338653 -1.83443 4.99071
0.352723 -1.73324 5.1248
0.334306 -1.78993 5.00461
0.379441 -1.82097 5.04067
0.0804347 -1.73727 4.82001
0.129782 -1.67654 4.80506
0.100349 -1.68259 4.7622
0.0412797 -1.73269 4.86381
0.0861326 -1.72383 4.80475
0.101343 -1.70957 4.8593
0.130852 -1.68911 4.83505
0.126358 -1.67825 4.81042
0.223746 -1.90094 5.06754
0.257641 -1.89306 5.06628
0.0623497 -1.89723 5.04819
0.0435455 -1.89109 5.04626
0.229405 -1.9693 5.18867
0.244405 -2.01363 5.13305
0.269596 -1.99749 5.14318
1.05409 -1.70392 5.07645
0.286041 -1.96469 5.08748
0.244501 -1.87054 5.05049
0.217991 -2.0041 5.14806
0.253652 -1.86952 5.04471
0.921326 -1.77518 5.09585
0.236913 -1.98577 5.18266
0.245092 -1.87048 5.05498
0.672285 -1.8557 5.20827
0.168395 -1.63862 4.71578
0.168371 -1.63857 4.71574
0.168365 -1.63905 4.71625
0.169859 -1.63989 4.71844
0.168475 -1.63851 4.71578
0.168546 -1.63866 4.71584
0.168337 -1.63863 4.71577
0.168515 -1.6386 4.71587
0.212672 -1.99671 5.1441
1.02727 -1.66129 5.19457
0.988696 -1.66611 5.11438
0.2276 -1.81873 5.10427
0.639811 -1.77909 5.04068
0.244475 -1.87713 5.0573
0.227325 -1.89272 5.05958
0.279445 -1.89604 5.06828
0.843528 -1.5631 4.96362
0.348157 -1.89931 5.04394
0.910268 -1.79004 5.31163
0.244853 -1.86392 5.045
0.255629 -2.04394 5.11631
0.290745 -2.02811 5.10716
0.199079 -1.94519 5.13955
0.231282 -1.90092 5.05289
0.262624 -1.99632 5.08595
0.92732 -1.73577 5.13737
0.238196 -1.95579 5.143
0.915753 -1.73947 5.14285
0.23103 -1.90384 5.07055
1.24836 -1.88326 5.16178
0.24691 -1.89607 5.0623
1.11948 -1.85499 5.24558
0.285151 -1.92721 5.23986
0.85379 -1.95829 5.15664
0.242315 -1.92492 5.21126
0.852147 -1.84605 5.17417
1.17321 -1.79988 5.21695
1.01701 -1.83208 5.12068
0.249727 -1.93048 5.20684
0.241606 -1.93014 5.20801
0.950717 -1.75126 5.13234
0.336793 -1.89033 5.07649
0.247102 -1.89675 5.04723
1.30566 -1.83223 5.11984
1.60246 -1.78852 5.14485
0.260169 -1.90171 5.06572
0.289347 -1.90706 5.0359
0.228523 -2.01249 5.13674
0.224429 -1.97698 5.14175
0.881781 -1.77933 5.28523
0.987031 -1.77086 5.0642
0.216102 -2.00241 5.14222
0.247007 -2.01331 5.12613
1.07003 -1.73745 5.12642
1.06464 -1.65347 5.08836
0.991508 -1.80637 5.06529
0.958273 -1.83557 5.07635
0.299273 -1.91569 5.00238
0.216854 -2.00389 5.14202
0.138931 -1.87968 5.1878
-0.0581183 -1.84981 5.02281
-0.0139806 -1.88198 5.08663
0.265852 -2.02642 5.09431
0.213294 -2.00099 5.15283
0.258766 -2.00973 5.08689
0.21599 -1.95504 5.11471
0.214683 -1.86664 5.02204
0.285751 -1.99347 5.13519
0.243633 -2.02067 5.10498
-0.0357457 -1.86632 5.08598
-0.0844512 -1.80123 5.07513
0.0535939 -1.93174 5.19498
0.21058 -1.8583 5.03868
0.234517 -2.01485 5.13383
0.221894 -2.00311 5.14258
0.339056 -1.82971 4.99528
0.337411 -2.51297 5.61757
0.379293 -1.84052 5.03772
0.213659 -1.77733 4.98405
0.321571 -1.84143 4.97524
0.351232 -1.83744 5.00544
0.236456 -1.79056 4.98351
0.377151 -1.77219 4.99929
0.113827 -1.77603 4.82865
0.0971489 -1.68704 4.76954
0.0911291 -1.6886 4.76677
0.104019 -1.68358 4.76536
0.0934312 -1.6881 4.76693
0.107928 -1.70723 4.772
-0.262214 -2.68141 5.72328
0.103694 -1.76391 4.81678
0.108882 -1.78974 4.82997
0.0928482 -1.68837 4.7672
0.103474 -1.78069 4.85182
0.132769 -1.68384 4.81359
0.0724312 -1.74575 4.82817
0.102486 -1.70508 4.78458
-0.0186946 -1.88012 5.16242
0.27405 -1.91923 5.08941
0.228873 -1.89939 5.00206
-0.0255274 -1.85217 5.15164
0.316406 -1.94059 5.10457
0.322507 -1.84382 4.96844
0.326646 -1.82399 5.00017
0.943101 -1.84118 5.0772
0.240046 -1.9345 5.19205
0.268257 -1.91139 5.07856
0.295538 -1.9138 5.00471
0.21426 -1.9582 5.16509
0.202776 -1.89972 5.06866
0.21385 -1.9025 5.06775
0.320348 -1.89128 4.99127
0.969012 -1.84261 5.21042
0.219948 -1.97934 5.14105
0.227438 -1.97955 5.14197
0.920372 -1.69431 5.23059
0.233917 -1.90949 5.20908
0.249604 -2.01086 5.08703
1.31592 -1.78824 5.16673
1.26202 -1.70228 5.29078
0.268597 -2.02014 5.14437
0.168425 -1.63852 4.7157
0.168319 -1.63863 4.7158
0.168419 -1.63849 4.71567
0.261332 -1.90435 5.07171
0.338251 -1.88534 5.00663
0.137657 -1.89734 5.04524
0.298415 -1.92711 5.04344
0.332148 -1.91156 5.07686
0.256926 -2.04156 5.11786
0.0267984 -1.84067 5.00143
-0.144284 -1.75544 5.14971
0.0461522 -1.88793 5.03903
-0.0539231 -1.82413 5.15423
0.270534 -1.8675 5.05147
0.166328 -1.87097 4.95597
0.300489 -1.91072 5.00098
0.331548 -1.86863 5.05881
1.30693 -1.15845 4.63106
0.216314 -1.97657 5.13771
0.278638 -1.9974 5.14836
0.181777 -1.88341 4.96331
0.211026 -1.97177 5.13857
0.205507 -1.95915 5.11496
0.14625 -1.91434 5.07173
0.204839 -1.86938 5.04611
0.346495 -1.7639 4.99504
0.232975 -1.96071 5.11037
0.258393 -1.93341 5.17863
-0.114638 -1.95746 5.1739
0.0846585 -1.71837 4.91907
0.312224 -1.94053 5.17081
0.352109 -1.86043 4.96253
0.263819 -1.97153 5.13191
0.364564 -1.85305 5.03863
0.351076 -1.93242 5.10992
0.347078 -1.83885 4.99189
0.271379 -1.90973 5.08183
0.293723 -1.92677 5.22961
0.268982 -1.60442 5.02756
0.24067 -1.75591 4.98267
0.110996 -1.69526 4.93243
0.261345 -2.00985 5.08635
0.230322 -1.9022 5.06997
0.343947 -1.85519 4.97621
0.34703 -1.83433 4.99462
0.329744 -1.90586 5.03837
0.351056 -1.84024 4.99587
0.195105 -1.91973 5.07544
0.0698255 -1.68125 4.91746
0.31745 -1.87147 5.04705
0.969257 -1.73522 5.15685
1.20974 -1.49234 5.04238
0.317531 -1.83533 5.01551
0.0690316 -1.82666 4.91393
0.273782 -1.66823 5.03078
0.121344 -1.84904 5.0219
-0.270586 -2.34374 5.37823
0.358539 -1.86351 5.06975
0.167201 -1.82925 4.91739
0.233278 -1.81867 5.00191
0.101918 -1.7563 4.82633
0.0695693 -1.78348 4.83774
0.0426004 -1.71328 4.86073
0.103513 -1.74836 4.82763
0.0910901 -1.76196 4.82341
0.0977473 -1.754 4.81332
0.0844597 -1.75 4.82628
0.0818545 -1.81516 4.87841
0.0687615 -1.80756 4.88309
0.0746976 -1.74097 4.82565
0.0948997 -1.69308 4.80145
0.133246 -1.69243 4.822
0.130373 -1.69068 4.80791
0.138041 -1.67515 4.75507
0.0711372 -1.75864 4.80532
0.134748 -1.67028 4.80635
0.0845698 -1.69361 4.82511
0.227628 -1.89139 5.05947
0.206172 -1.96141 5.14739
0.273878 -1.90261 5.08358
0.239802 -1.90116 5.06479
0.241144 -1.86964 5.05428
0.246523 -1.87081 5.05156
1.01562 -1.75821 5.06484
0.94795 -1.75734 5.0823
0.961802 -1.75307 5.06442
0.201152 -1.9539 5.13677
0.248528 -1.90856 5.07602
0.214017 -1.96644 5.13949
1.04964 -1.80864 5.20999
0.200738 -1.9576 5.1202
0.168444 -1.63855 4.71572
0.168538 -1.63862 4.71584
0.168444 -1.63852 4.71572
0.167998 -1.63909 4.71661
0.168459 -1.63851 4.71579
0.16841 -1.63852 4.7157
0.16808 -1.63908 4.71628
0.168412 -1.6385 4.71567
0.16848 -1.63857 4.71575
0.168161 -1.63902 4.71624
0.168359 -1.63855 4.71576
0.168465 -1.63871 4.71605
0.168446 -1.63853 4.71579
0.168025 -1.63914 4.71638
0.168439 -1.63853 4.7157
0.168129 -1.63905 4.71649
0.168435 -1.63853 4.7157
0.168439 -1.63853 4.71572
0.168423 -1.63851 4.71568
0.167804 -1.63869 4.71739
0.168139 -1.63864 4.71647
0.16873 -1.63871 4.71628
0.168523 -1.63861 4.71606
0.168282 -1.63879 4.71598
0.188471 -1.93618 5.10008
0.168371 -1.63856 4.71572
0.168407 -1.63852 4.71571
0.168343 -1.63868 4.71592
0.168404 -1.63855 4.71572
0.168414 -1.63855 4.71572
0.168436 -1.63852 4.7157
0.168432 -1.63851 4.71572
0.168414 -1.63851 4.71568
0.168408 -1.63851 4.71572
0.168459 -1.63853 4.71574
0.168429 -1.63853 4.71578
0.168375 -1.63853 4.71575
0.168398 -1.6385 4.71567
0.16842 -1.63851 4.71567
0.168401 -1.63862 4.71577
0.168429 -1.63853 4.71571
0.168404 -1.63857 4.71574
0.168428 -1.63852 4.71573
0.208371 -1.96833 5.14562
0.997722 -1.7463 5.16623
0.21449 -1.93885 5.10625
0.0444331 -1.86687 5.15242
0.21615 -1.89252 5.04699
0.182612 -1.92133 5.07936
-0.000765651 -1.85826 4.95494
0.212678 -1.88295 4.96111
0.123853 -1.90992 5.13749
0.129864 -1.85629 5.0226
0.0364127 -1.88299 5.04461
0.159741 -1.9445 5.09472
0.311227 -1.94522 5.10945
0.139128 -1.88607 5.18419
-0.00414125 -1.84939 4.94212
0.0297862 -1.89162 5.04099
0.0966098 -1.90868 5.05972
0.0261813 -1.88424 5.037
0.0124069 -1.8426 5.13786
0.0808993 -1.91287 5.06607
0.316952 -1.88328 4.99888
0.180002 -1.87181 5.03443
0.171207 -1.89353 5.05551
0.168408 -1.63859 4.71577
0.168426 -1.63851 4.71568
0.168218 -1.63865 4.71595
0.168329 -1.63872 4.71591
0.168344 -1.63843 4.71603
0.16843 -1.63852 4.71573
0.16842 -1.63852 4.71597
0.315901 -1.73775 4.97557
0.219238 -1.78399 4.98403
0.213972 -1.80461 4.98898
0.348622 -1.85401 5.0064
0.0850406 -1.88959 5.04231
0.0280161 -1.88987 5.04212
0.0998874 -1.90585 5.05725
0.271046 -2.03711 5.1002
0.0817308 -1.90783 5.05677
0.0850987 -1.91732 5.06665
0.0347357 -1.87966 5.03055
0.247572 -1.87998 5.05864
0.219353 -1.88136 5.03714
0.128387 -1.88259 5.03904
0.232823 -1.89806 5.06626
-0.0450971 -1.85434 5.02528
0.235379 -1.92449 5.19539
-1.05347 -1.53458 4.87328
0.372104 -1.86974 5.03542
0.328869 -1.90549 5.07165
0.26602 -1.85856 5.04169
-0.0712936 -1.85773 5.002
0.346228 -1.77391 4.98264
0.277259 -1.78074 4.96679
0.224106 -1.7446 4.96991
0.0819061 -1.69854 4.894
0.171341 -1.92013 5.0774
0.232366 -1.75059 4.98026
0.317384 -1.94483 5.10347
0.00120473 -1.91921 5.05942
0.133607 -1.82578 5.01336
0.249575 -1.90683 5.07252
0.282081 -2.01795 5.095
0.262751 -2.03105 5.1336
0.294363 -2.0208 5.10031
0.273883 -1.91231 5.07933
0.268754 -2.02035 5.09164
0.219882 -1.97132 5.18094
0.0434306 -1.89771 5.11296
0.306776 -1.87785 5.07913
0.24406 -1.73519 4.96132
0.168878 -1.64528 4.72899
0.171486 -1.6459 4.72985
0.342659 -2.19281 6.79218
-0.0179565 -1.84585 5.08935
0.258189 -2.01512 5.08719
0.246811 -2.03173 5.12759
0.359584 -1.76227 5.17962
0.242209 -1.89829 5.06445
0.213754 -2.00153 5.14592
0.246707 -2.03093 5.12781
1.20935 -1.17938 4.79315
0.261862 -2.01806 5.09383
0.251565 -2.01657 5.0966
0.243275 -1.99963 5.1171
0.226595 -1.9245 5.222
0.221409 -1.91721 5.21446
0.206819 -1.87948 5.20194
0.305087 -1.84547 4.98114
0.314121 -2.00007 5.06857
0.295754 -1.66218 4.98578
0.0762525 -1.7285 4.94348
0.342276 -1.91369 5.08611
0.311615 -1.84333 4.98153
0.245656 -1.76224 4.97222
0.129487 -1.82384 4.92999
0.366187 -1.86364 5.00291
0.287883 -2.01967 5.09806
0.280257 -2.03168 5.09651
0.0103357 -1.82212 5.12702
0.173631 -1.87422 5.04074
0.140267 -1.92264 5.07609
0.00160595 -1.81518 5.12712
0.28638 -2.02683 5.10595
0.175428 -1.87515 5.04186
-0.0495185 -1.84717 5.06228
0.289318 -1.96847 5.13303
0.234373 -2.00588 5.10039
0.0466158 -1.85886 5.1218
0.139048 -1.9655 5.07197
-0.00089074 -1.92242 5.11217
0.264159 -2.0272 5.09743
0.20545 -1.88439 5.06201
0.137829 -1.9129 5.07153
0.37171 -1.87842 5.02543
0.201904 -1.80542 5.00064
0.341715 -1.76852 4.97794
0.323087 -1.82021 5.00146
0.325574 -1.8526 4.95962
0.319514 -1.76874 4.99357
0.370858 -1.77482 5.00425
0.233747 -1.82504 4.98897
0.181253 -1.66494 4.77486
0.18987 -1.68676 4.79911
0.174508 -1.64954 4.74103
0.313441 -1.74102 4.96441
0.317671 -1.84508 4.97373
0.368755 -1.8717 5.00026
0.186622 -1.79405 4.9204
0.163932 -1.84682 4.9286
0.191044 -1.81827 4.95314
0.0450739 -1.73257 4.94476
0.322689 -1.94751 5.10899
0.267267 -2.03825 5.10175
0.149157 -1.88606 5.04647
0.204194 -1.85334 5.01251
0.289421 -1.97228 5.13978
0.275304 -2.03289 5.09648
0.0510915 -1.95106 5.16816
0.227007 -1.89084 5.05913
0.171559 -1.84452 5.02149
0.141454 -1.8401 5.01709
0.0581697 -1.93969 5.13575
-0.0146826 -1.87079 5.13756
0.228089 -1.89506 5.05952
0.254584 -1.87343 5.06368
-0.0524025 -1.85137 5.16765
0.290432 -2.00766 5.11338
-0.0503163 -1.82953 5.15339
-0.000569565 -1.90463 5.12578
0.281025 -1.99956 5.13172
0.28464 -2.00656 5.12762
0.27409 -2.0326 5.09724
0.184392 -1.87192 5.0415
0.22328 -1.9008 5.07082
0.0279443 -1.89214 5.04169
0.334074 -1.89349 5.08286
0.326185 -1.90192 4.98493
0.372901 -1.84468 5.03372
0.355712 -1.90085 5.0008
0.35963 -1.89993 4.99597
0.00833872 -1.88229 5.0351
0.218247 -1.86621 5.04328
0.203196 -1.86958 5.04213
0.252635 -1.96545 5.11278
0.271504 -1.77945 5.043
0.0550867 -1.88972 5.04389
0.148164 -1.92905 5.07182
0.240469 -2.02423 5.11364
0.129467 -1.87375 5.18598
0.335611 -1.8837 5.02743
0.286051 -1.94156 5.16779
0.0604216 -1.85541 5.02454
0.203709 -1.97556 5.13432
0.286802 -2.02823 5.10299
0.111134 -1.92137 5.06047
0.253296 -2.02731 5.12634
0.232183 -1.98977 5.12838
0.263393 -2.00502 5.08978
0.181087 -1.85106 5.0249
0.26089 -2.01046 5.15206
0.276264 -2.03105 5.0955
0.106937 -1.89867 5.04597
0.245896 -2.03146 5.12019
0.0811808 -1.91409 5.06594
0.0309124 -1.85804 5.00261
0.0500852 -1.87842 5.03174
0.287287 -2.02935 5.1024
0.0463142 -1.88304 5.03168
0.115277 -1.92016 5.06563
0.329223 -1.91446 5.17682
0.287938 -2.01937 5.12698
0.0392658 -1.88136 5.13712
0.213066 -1.85495 5.0376
0.0184455 -1.83878 5.12627
0.133045 -1.91022 5.13475
0.350961 -1.89555 5.03769
0.260113 -2.0415 5.12923
0.290227 -2.01795 5.11183
0.281535 -1.98071 5.1521
0.19173 -1.85763 4.98356
0.367671 -1.87661 4.992
0.340864 -1.88956 5.00302
0.345202 -1.8518 5.0578
0.256075 -2.01922 5.15064
0.319997 -1.89309 4.98824
0.28758 -1.89535 5.05193
0.220065 -1.98602 5.13953
0.220025 -2.00005 5.14513
0.930044 -1.76312 5.16015
0.809458 -1.92488 5.0996
1.12892 -1.70386 5.08874
1.25349 -1.38997 5.01561
0.208545 -1.96716 5.14892
1.17146 -1.31035 4.91815
0.244578 -2.01153 5.11232
0.819798 -1.65927 5.02629
0.661824 -1.89232 5.23519
0.946648 -1.84395 5.08968
0.853868 -1.5814 4.9517
0.223458 -1.91091 5.21739
0.906522 -1.84407 5.05966
0.095181 -1.693 4.7999
0.088728 -1.68177 4.7682
0.133376 -1.70967 4.84422
0.131092 -1.70958 4.84091
0.150429 -1.66421 4.76385
0.133643 -1.69402 4.81813
0.126967 -1.7046 4.82989
0.13434 -1.69336 4.81064
0.168455 -1.63858 4.71572
0.168469 -1.63854 4.7157
0.16865 -1.6387 4.71591
0.168467 -1.63856 4.7157
0.214223 -1.90007 5.06974
0.20803 -1.90415 5.04547
0.341286 -1.89758 5.07124
0.367125 -1.81951 5.05665
0.369313 -1.85827 5.02541
0.275081 -2.03366 5.09646
0.27199 -2.04051 5.09436
-0.0107889 -1.91673 5.11339
0.0114298 -1.91667 5.13163
0.284764 -2.00191 5.12511
-0.0217438 -1.88317 5.15419
0.603333 -1.92778 5.23187
0.250144 -2.01527 5.10002
0.26252 -1.87438 5.19775
0.341327 -1.88985 5.0032
0.232952 -1.92881 5.18923
0.249786 -1.91682 5.2142
0.268168 -1.90492 5.07023
1.16118 -2.0402 5.39095
1.03523 -1.80474 5.18603
0.21831 -1.99887 5.14152
1.13983 -2.07579 5.31881
0.255622 -2.0064 5.08906
1.00639 -2.02029 5.25155
0.747019 -1.84298 5.10179
0.244691 -2.01961 5.09926
0.236041 -1.94057 5.18636
0.198844 -1.96236 5.14304
1.12882 -1.82169 5.23474
0.536917 -1.95331 5.21044
0.347778 -1.90267 5.01639
0.758802 -2.01092 5.39264
0.220852 -1.97692 5.14264
0.206657 -1.96263 5.14725
0.253021 -1.98468 5.17762
1.03932 -1.6533 5.11017
0.198091 -1.87865 5.03093
0.252386 -2.00817 5.08727
0.0474749 -1.95173 5.16051
0.311477 -1.89107 5.08086
0.284508 -1.99539 5.13389
0.0490142 -1.95525 5.14856
0.255754 -2.00763 5.08656
0.286459 -2.02669 5.10355
0.266078 -2.02588 5.09453
0.281092 -2.00732 5.12983
0.27063 -1.86413 5.0567
0.0753237 -1.91929 5.06719
0.168446 -1.6385 4.71572
0.168386 -1.63852 4.71572
0.168437 -1.6385 4.71571
0.168338 -1.63861 4.71582
0.168418 -1.6385 4.71567
0.168439 -1.6385 4.71572
0.168379 -1.63855 4.7157
0.282561 -1.99449 5.13505
0.242046 -1.90269 5.06898
0.318346 -1.88377 5.00122
0.336283 -1.90598 5.08261
0.340921 -1.88999 5.00322
0.250056 -1.8346 5.0537
0.143066 -1.91211 5.05542
0.230715 -1.95081 5.12323
0.365348 -1.87554 5.07236
0.0513464 -1.85251 5.01986
0.343717 -1.89698 5.04042
0.279623 -1.96552 5.12438
0.157167 -1.84911 5.01931
0.037107 -1.95027 5.16289
0.28358 -2.0302 5.11837
0.288675 -2.02249 5.09831
0.285547 -1.99378 5.13534
0.258165 -2.03804 5.12867
0.15789 -1.90146 5.05922
0.238591 -1.91 5.07417
0.224131 -1.8916 5.05883
-0.0358017 -1.84844 5.09562
0.2413 -1.90171 5.06086
0.214308 -1.86628 5.03923
0.287325 -2.02695 5.10385
0.288717 -2.01718 5.11707
0.340335 -1.94344 4.99107
0.137795 -1.93696 5.08857
0.256311 -2.01868 5.15065
0.217586 -1.99619 5.14923
0.359135 -1.8964 5.00342
0.231088 -1.90371 4.99022
0.203132 -1.86943 5.03967
0.221457 -1.99424 5.13476
0.257608 -1.97654 5.17944
0.31451 -1.88897 5.06168
1.31998 -1.65605 5.08806
0.928877 -1.77708 5.08277
0.476374 -1.75016 5.05325
0.259518 -1.97091 5.18561
0.205198 -1.95968 5.16719
0.203414 -1.89456 5.19761
0.348343 -1.86905 5.06769
0.340735 -1.88437 5.06278
0.209822 -1.9573 5.17392
0.211415 -1.96158 5.1184
0.250784 -1.98594 5.17539
0.276372 -2.02491 5.13225
0.26274 -1.96975 5.08456
0.349053 -1.89657 5.04948
0.137312 -1.66702 4.77735
0.0962929 -1.71236 4.77819
0.107039 -1.73 4.80496
0.105961 -1.69294 4.84758
-0.409831 -2.52529 5.60645
0.11413 -1.72139 4.78164
0.104078 -1.68563 4.76209
0.0820898 -1.75433 4.83153
0.110414 -1.77705 4.82496
0.148212 -1.70849 4.94721
0.0892022 -1.68611 4.8802
0.0401197 -1.76793 4.85002
0.0853784 -1.76527 4.82117
0.0958387 -1.75091 4.91074
0.110122 -1.74654 4.90755
0.1492 -1.68984 4.87668
0.146082 -1.71277 4.91996
0.153756 -1.70301 4.93422
0.0206853 -1.87498 4.95023
0.146302 -1.69957 4.91842
0.138582 -1.72279 5.00689
0.0466129 -1.75875 4.83366
-0.0912242 -1.7789 5.04623
0.105502 -1.77167 4.84146
0.0820767 -1.75676 4.83178
0.148244 -1.71779 4.90662
0.0319069 -1.77651 4.83108
0.158561 -1.79784 4.867
0.146797 -1.82066 4.91508
0.0575749 -1.77196 4.83003
0.0165799 -1.72386 4.91356
0.157492 -1.72405 4.95186
0.159789 -1.73654 4.96221
0.223967 -2.01716 5.14711
0.23369 -1.90382 4.9874
0.894225 -1.61712 5.14422
0.804179 -1.56064 5.0306
0.269355 -1.95999 5.18503
1.13247 -1.6035 4.95696
1.1643 -1.29909 4.87733
1.2666 -1.24497 4.86662
0.300055 -1.91245 5.01189
0.948178 -1.73886 5.12668
0.183976 -1.9172 5.07571
0.985181 -1.86016 5.09969
0.811687 -1.74614 5.20177
0.247202 -2.01742 5.09991
1.02824 -1.7877 5.19905
0.0782225 -1.69356 4.83945
0.36607 -1.86073 5.06757
0.314232 -1.83242 4.9732
0.354264 -1.89424 5.04338
0.151862 -1.89204 5.05219
0.0510899 -1.95931 5.14814
0.133757 -1.87168 5.02887
0.213356 -1.70309 4.94303
0.370777 -1.86985 5.03411
0.366553 -1.86305 5.06418
0.3417 -1.85833 5.05844
0.364098 -1.85869 5.06654
-0.0248708 -1.95552 5.14917
0.359015 -1.75105 5.05385
0.168373 -1.63861 4.71578
0.16844 -1.6385 4.71573
0.168443 -1.6385 4.71572
0.220205 -1.88078 5.03686
0.235762 -1.90398 5.07216
0.361027 -1.90188 5.05105
0.285478 -1.92692 5.22874
0.268321 -2.01943 5.14546
0.259733 -2.03778 5.10423
0.249869 -2.00496 5.1155
0.228684 -2.01189 5.13676
0.26511 -2.03793 5.10133
0.24138 -1.92407 5.21249
0.240812 -2.00332 5.11563
0.236179 -1.97449 5.12653
0.249441 -2.02715 5.14489
0.278251 -2.03559 5.11984
0.265273 -2.00923 5.09304
0.940913 -1.74514 5.14498
0.250497 -2.02435 5.09375
0.244529 -1.86708 5.04847
0.998841 -1.81738 5.10794
0.997942 -1.73551 5.02503
0.218642 -1.97243 5.13524
0.941724 -1.75105 5.15546
0.210355 -1.97437 5.14551
0.0871437 -1.9186 5.06598
0.283632 -1.99483 5.11812
0.168686 -1.89941 5.06078
0.24651 -1.95553 5.18781
0.331411 -1.90863 5.08908
0.187213 -1.97049 5.09265
0.117212 -1.91959 5.06998
0.115782 -1.87752 5.0367
0.281419 -2.00723 5.13221
0.247363 -1.8608 5.05762
0.0697101 -1.77044 4.84592
0.0199882 -1.76961 4.86195
0.0594692 -1.76545 4.84907
0.103011 -1.69698 4.86141
0.0984818 -1.76369 4.89554
0.10256 -1.79043 4.86878
0.078664 -1.77813 4.83517
0.0756672 -1.7763 4.84614
0.0831452 -1.70269 4.88262
0.361896 -1.88504 5.03434
0.255849 -1.65031 5.02542
0.29628 -1.97317 5.13276
0.37856 -1.78717 5.0396
0.286079 -2.0163 5.09702
0.150952 -1.8884 5.04645
0.281216 -1.97674 5.14593
0.291744 -2.00522 5.11105
0.25325 -2.016 5.1003
0.257256 -2.03876 5.12715
0.259352 -2.01086 5.09259
0.28493 -1.98968 5.11736
0.2873 -1.98564 5.13571
0.0666425 -1.92385 5.11772
0.268205 -2.04267 5.10345
0.286021 -1.99331 5.13101
0.28529 -1.97152 5.12625
0.274125 -2.03143 5.0969
0.253979 -2.00376 5.08669
0.281955 -2.03628 5.09284
0.0912682 -1.92312 5.06715
0.270948 -2.03279 5.09418
0.050993 -1.96048 5.15545
-0.0581483 -1.82844 5.14351
0.247164 -2.03296 5.13495
0.0375178 -1.92984 5.11915
0.0512883 -1.88631 5.04909
0.133478 -1.91217 5.07181
0.23904 -1.86437 5.03966
0.0283976 -1.87564 5.02954
0.06474 -1.95746 5.13972
0.342854 -1.89707 5.07726
0.325691 -1.90171 5.00784
0.0694977 -1.85701 5.02352
0.280849 -2.01038 5.09734
0.218838 -1.89191 5.01944
0.0244438 -1.86088 5.13718
0.0429728 -1.90486 5.12311
0.0403536 -1.89177 5.12261
0.161407 -1.83888 5.0035
0.366488 -1.84335 5.06737
0.0202575 -1.86632 5.00352
0.267191 -2.02422 5.09563
0.17863 -1.83282 5.10186
0.143003 -1.89144 5.18488
0.044186 -1.86262 5.16284
0.141996 -1.84254 4.9475
0.153664 -2.06942 5.0352
0.0724299 -1.73337 4.81269
0.18116 -1.72439 4.87441
0.137675 -1.73272 4.97034
0.133811 -2.07667 5.06747
0.150911 -2.06337 5.06838
0.136039 -2.12276 5.06956
0.0808916 -1.66036 4.83491
0.150044 -2.06304 5.06856
0.115536 -1.75361 4.81346
0.13692 -2.02505 5.02706
0.163285 -1.88339 4.9931
0.155275 -1.8367 4.92587
0.183151 -1.87958 4.99155
0.0353966 -1.72571 4.88551
-0.109303 -1.91289 4.98081
0.166154 -1.83097 4.91665
0.335186 -1.94509 5.03105
0.30878 -1.67644 4.97333
0.286257 -1.66768 5.02923
0.165325 -1.83485 4.89959
0.350705 -1.84989 5.00411
0.331145 -1.97456 5.13491
0.332531 -1.80769 5.00955
0.182708 -1.7399 4.95764
0.253707 -1.7218 4.97221
0.168421 -1.63854 4.71568
0.168558 -1.63872 4.71617
0.168423 -1.63849 4.71568
0.168424 -1.63852 4.71568
0.168442 -1.63855 4.71572
0.168377 -1.63864 4.71605
1.01826 -2.792 6.92017
0.168546 -1.63863 4.71594
0.168438 -1.63854 4.71571
0.168427 -1.6385 4.71565
0.168403 -1.6386 4.71573
0.168417 -1.63861 4.71581
0.273826 -1.85705 5.05568
0.358125 -1.87002 5.04859
0.210953 -1.74291 4.88372
0.167595 -1.69576 4.76576
-0.0574814 -1.83493 5.03495
0.345754 -1.88604 5.03843
0.180595 -1.90179 5.06885
-0.0353135 -1.96012 5.16738
0.294088 -1.65584 5.0493
0.303791 -1.88174 5.04523
0.353266 -1.83985 5.00643
0.314813 -1.78824 5.00117
0.230513 -1.70757 4.98534
0.0452478 -1.96034 5.13376
0.302738 -1.75137 4.98652
0.31423 -1.75604 4.98914
0.285703 -1.99503 5.11769
0.37318 -1.81185 5.04051
0.192551 -1.76229 4.96388
0.211936 -1.81502 4.9569
0.38675 -1.67937 5.08826
0.278528 -1.8974 5.06887
0.325637 -1.88251 5.00153
-0.0267999 -1.88827 5.06727
0.208811 -1.89353 5.05756
0.281487 -1.9999 5.13175
0.201544 -1.86316 5.04583
0.293808 -1.85109 4.96971
0.284256 -2.02028 5.12783
-0.015085 -1.94483 5.08926
0.0743429 -1.9044 5.04994
0.161305 -1.90693 5.06188
0.172904 -1.88829 5.05107
0.298201 -1.99193 5.13137
0.273079 -2.04026 5.10384
0.333987 -1.97537 5.13228
0.287838 -2.02144 5.11341
0.114086 -1.91813 5.0708
0.328644 -1.90735 5.07723
0.332693 -1.97247 5.13485
0.229228 -1.92924 5.21796
0.236464 -1.88997 5.05828
0.278155 -1.99159 5.11783
0.156922 -1.84431 5.02223
0.247909 -1.98071 5.18327
0.333815 -1.9751 5.13206
0.273883 -1.89899 5.07124
0.327899 -1.90032 4.98182
0.273936 -1.9094 5.07773
0.331129 -1.89371 4.99174
0.235246 -1.89156 5.06141
0.121734 -1.84803 5.02175
0.0591482 -1.88311 5.04448
0.19408 -1.89517 5.06917
0.2582 -1.88519 5.07296
0.36967 -1.77926 5.00794
0.234429 -1.89207 5.06148
0.363743 -1.81832 5.11126
0.315193 -1.76903 4.99096
0.322772 -1.77362 4.98425
0.294166 -1.72122 4.9624
0.263043 -1.69224 4.95508
0.197663 -1.95186 5.09908
0.372231 -1.76778 5.05433
0.35059 -1.89288 5.06446
0.342032 -1.77594 4.9839
0.0595259 -1.83362 5.03068
0.347728 -1.88941 5.07391
0.353333 -1.89857 5.09422
0.146644 -1.8859 5.0419
0.168371 -1.63858 4.71574
0.168631 -1.63892 4.71662
0.168448 -1.63851 4.71569
0.168368 -1.63857 4.71574
0.168373 -1.63857 4.71572
0.168451 -1.63854 4.71574
0.168395 -1.63854 4.71576
0.168433 -1.63849 4.71571
0.168429 -1.63852 4.71567
0.248596 -1.86652 5.03483
